VERSION .7
FIELDS x y z
SIZE 4 4 4
TYPE F F F
COUNT 1 1 1
WIDTH 850
HEIGHT 1
VIEWPOINT 0 0 0 1 0 0 0
POINTS 850
DATA ascii
1.3788554668426514 1.4057402610778809 4.997073650360107
1.3502007722854614 1.4079008102416992 5.004753589630127
1.3220868110656738 1.4107389450073242 5.014842510223389
1.2943090200424194 1.4140797853469849 5.026718616485596
1.2663930654525757 1.4174296855926514 5.038626670837402
1.1188501119613647 1.2836952209472656 4.563232421875
1.0906084775924683 1.283480167388916 4.5624680519104
1.0712847709655762 1.2940258979797363 4.5999555587768555
1.127091884613037 1.3983566761016846 4.970826625823975
1.0942624807357788 1.3954691886901855 4.960562229156494
1.0615657567977905 1.3925901651382446 4.9503278732299805
1.029003381729126 1.3897231817245483 4.940136432647705
0.9965774416923523 1.386871099472046 4.92999792098999
0.9613322019577026 1.379793405532837 4.904838562011719
0.9260397553443909 1.3721873760223389 4.877800941467285
0.8950432538986206 1.3706507682800293 4.872338771820068
0.8632985949516296 1.3678224086761475 4.8622846603393555
0.8316845893859863 1.3650057315826416 4.852272033691406
0.8015406727790833 1.364481806755066 4.850409507751465
0.7720462679862976 1.3650658130645752 4.852485656738281
0.7425249218940735 1.3656471967697144 4.854552268981934
0.7127324938774109 1.365757942199707 4.854945659637451
0.6829145550727844 1.3658273220062256 4.8551926612854
0.6530952453613281 1.3659001588821411 4.855451583862305
0.6247945427894592 1.3693082332611084 4.867566108703613
0.5973489284515381 1.3750274181365967 4.887896537780762
0.5696716904640198 1.3807913064956665 4.908385753631592
0.5417623519897461 1.386607050895691 4.9290595054626465
0.5136172771453857 1.3924717903137207 4.949907302856445
0.48533546924591064 1.3986815214157104 4.971981525421143
0.4569244086742401 1.4053285121917725 4.995609760284424
0.4282430112361908 1.4120423793792725 5.019475936889648
0.39928528666496277 1.418817162513733 5.043558597564697
0.3700939416885376 1.4258328676223755 5.068498134613037
0.3420831859111786 1.4391053915023804 5.115678787231445
0.3144231140613556 1.4566909074783325 5.178191184997559
0.28661826252937317 1.4774928092956543 5.252136707305908
0.25612518191337585 1.4879605770111084 5.289347171783447
0.22314392030239105 1.4849157333374023 5.2785234451293945
0.19108884036540985 1.4880467653274536 5.289653778076172
0.16008958220481873 1.502370834350586 5.340572357177734
0.12799997627735138 1.5112146139144897 5.372009754180908
0.09739368408918381 1.5498145818710327 5.509223461151123
0.06506803631782532 1.5876474380493164 5.643710613250732
0.03281222656369209 1.7155803442001343 6.09848165512085
-0.004730363842099905 1.7317354679107666 6.155909061431885
-0.04286031052470207 1.7430119514465332 6.1959943771362305
-0.08148923516273499 1.754441499710083 6.236623764038086
-0.12064546346664429 1.766259789466858 6.278635025024414
-0.15970635414123535 1.7713029384613037 6.296562194824219
-0.19885557889938354 1.7751563787460327 6.31026029586792
-0.23810328543186188 1.7784956693649292 6.3221306800842285
-0.27743300795555115 1.7814171314239502 6.332515716552734
-0.3170042335987091 1.7849854230880737 6.345200061798096
-0.35702216625213623 1.7900058031082153 6.363046646118164
-0.39732035994529724 1.7953059673309326 6.381887435913086
-0.4378604292869568 1.8006432056427002 6.400859832763672
-0.4786190390586853 1.8059290647506714 6.419650077819824
-0.5194099545478821 1.8105180263519287 6.435962677001953
-0.5610041618347168 1.8170591592788696 6.459214687347412
-0.6029007434844971 1.8236533403396606 6.4826555252075195
-0.6458350419998169 1.8323705196380615 6.51364278793335
-0.69065922498703 1.8451217412948608 6.5589704513549805
-0.7358369827270508 1.8573553562164307 6.6024580001831055
-0.7812452912330627 1.8688640594482422 6.643368721008301
-0.8273792266845703 1.880875825881958 6.686068058013916
-0.8772021532058716 1.8997423648834229 6.753133773803711
-0.9415858387947083 1.9470093250274658 6.921156883239746
-0.9762172102928162 1.931329607963562 6.865418910980225
-1.023047685623169 1.9400815963745117 6.8965301513671875
-1.0764589309692383 1.960121750831604 6.96776819229126
1.7453593015670776 1.5352288484573364 5.57932710647583
1.6869781017303467 1.5136287212371826 5.500827789306641
1.632814645767212 1.4950058460235596 5.4331488609313965
1.4129356145858765 1.3207066059112549 4.799710750579834
1.3860429525375366 1.3232080936431885 4.808801651000977
1.3590481281280518 1.3257191181182861 4.81792688369751
1.3319505453109741 1.3282395601272583 4.827086925506592
1.3626655340194702 1.3898403644561768 5.0509562492370605
1.3346357345581055 1.3930007219314575 5.062441825866699
1.3068037033081055 1.3965235948562622 5.075244426727295
1.2802594900131226 1.4016286134719849 5.093797206878662
1.118232011795044 1.2549426555633545 4.56071138381958
1.0900084972381592 1.2547353506088257 4.559957981109619
1.070582628250122 1.2649117708206177 4.596940994262695
1.0501174926757812 1.2743786573410034 4.631345748901367
1.033021330833435 1.2885757684707642 4.68294095993042
1.0590009689331055 1.3588600158691406 4.93836784362793
1.0265247821807861 1.3560724258422852 4.928236961364746
0.9941794872283936 1.3532929420471191 4.918135643005371
0.9619553685188293 1.3505089282989502 4.908018112182617
0.9235672950744629 1.3386106491088867 4.864777565002441
0.8922777771949768 1.336548924446106 4.8572845458984375
0.8606367111206055 1.3337993621826172 4.847292423248291
0.8291255235671997 1.3310613632202148 4.837341785430908
0.7989020347595215 1.3302634954452515 4.834442138671875
0.7695037126541138 1.3308310508728027 4.836504936218262
0.7398224472999573 1.3309353590011597 4.836884021759033
0.710116982460022 1.331002950668335 4.837129592895508
0.6804115772247314 1.331076741218567 4.837397575378418
0.6506998538970947 1.331144094467163 4.837642669677734
0.6225664019584656 1.3346015214920044 4.850207328796387
0.5952111482620239 1.3401588201522827 4.87040376663208
0.5676257610321045 1.345759391784668 4.8907575607299805
0.539808452129364 1.3514071702957153 4.911282539367676
0.5117571353912354 1.3571025133132935 4.931980609893799
0.48357221484184265 1.3631389141082764 4.953917980194092
0.45525652170181274 1.3695932626724243 4.97737455368042
0.4266712963581085 1.376109004020691 5.001053810119629
0.3978129029273987 1.3826870918273926 5.024960041046143
0.36867809295654297 1.3893316984176636 5.049108028411865
0.34069859981536865 1.4019521474838257 5.094973087310791
0.31300264596939087 1.4184136390686035 5.154797554016113
0.2847711145877838 1.4358842372894287 5.218288898468018
0.25738322734832764 1.4625858068466187 5.3153276443481445
0.224472776055336 1.4611082077026367 5.309957981109619
0.19199539721012115 1.4624264240264893 5.314748764038086
0.16020995378494263 1.4706370830535889 5.344587802886963
0.1286379098892212 1.4855496883392334 5.398783206939697
0.09758184105157852 1.5188676118850708 5.519866943359375
0.06527743488550186 1.5579423904418945 5.661872863769531
0.03301769867539406 1.6885895729064941 6.1366705894470215
-0.004753834567964077 1.702288031578064 6.186453342437744
-0.04307449236512184 1.7134332656860352 6.226957321166992
-0.08193464577198029 1.725473165512085 6.270712852478027
-0.12143255770206451 1.7389243841171265 6.319597244262695
-0.16044823825359344 1.7406343221664429 6.325811386108398
-0.19967328011989594 1.7434951066970825 6.336208343505859
-0.23902706801891327 1.7463709115982056 6.346659183502197
-0.27851030230522156 1.7492454051971436 6.357105731964111
-0.3184243142604828 1.7537908554077148 6.373624801635742
-0.3585900068283081 1.7585688829421997 6.390989303588867
-0.39905813336372375 1.7637449502944946 6.409800052642822
-0.4397798776626587 1.7690058946609497 6.428919315338135
-0.4806598126888275 1.7739872932434082 6.447022914886475
-0.5216769576072693 1.7786732912063599 6.464052677154541
-0.5628504753112793 1.7831913232803345 6.480472087860107
-0.6042343378067017 1.7877378463745117 6.496994972229004
-0.6463087797164917 1.7936335802078247 6.518421173095703
-0.6896604895591736 1.8021814823150635 6.54948616027832
-0.7339145541191101 1.8120111227035522 6.585208892822266
-0.7791571617126465 1.8231287002563477 6.625612258911133
-0.8242572546005249 1.8328219652175903 6.660839557647705
-0.8773942589759827 1.8586249351501465 6.754612922668457
-0.9311012029647827 1.883245587348938 6.844089031219482
-0.977888286113739 1.8923485279083252 6.877171039581299
-1.013868808746338 1.8806493282318115 6.834653854370117
-1.0614911317825317 1.8906186819076538 6.870884418487549
-1.1111888885498047 1.903377652168274 6.917253017425537
-1.1654192209243774 1.922675609588623 6.9873857498168945
1.6939806938171387 1.4859471321105957 5.5236616134643555
1.6404218673706055 1.468407392501831 5.458461761474609
1.4089210033416748 1.2875248193740845 4.786073207855225
1.3820940256118774 1.2899534702301025 4.795101165771484
1.355172038078308 1.292397379875183 4.80418586730957
1.3281444311141968 1.2948474884033203 4.81329345703125
1.3010144233703613 1.2973068952560425 4.8224358558654785
1.2738457918167114 1.2998416423797607 4.831858158111572
1.321143388748169 1.3802980184555054 5.1309356689453125
1.1509685516357422 1.2319225072860718 4.5793843269348145
1.1159532070159912 1.2243989706039429 4.551417350769043
1.0877025127410889 1.2241013050079346 4.550311088562012
1.0657049417495728 1.231011152267456 4.5759968757629395
1.0403302907943726 1.2342889308929443 4.588181018829346
1.0198311805725098 1.2436952590942383 4.623147010803223
1.0021986961364746 1.257237195968628 4.67348575592041
1.0240556001663208 1.322580099105835 4.916382789611816
0.9917930960655212 1.319875717163086 4.906330108642578
0.9596623778343201 1.3171825408935547 4.8963189125061035
0.9211058020591736 1.3052095174789429 4.85181188583374
0.8895314335823059 1.3026598691940308 4.842334270477295
0.8579911589622498 1.2999852895736694 4.83239221572876
0.826583981513977 1.2973278760910034 4.822513580322266
0.7962808012962341 1.2962696552276611 4.818580150604248
0.7667134404182434 1.2963738441467285 4.818967342376709
0.7371193170547485 1.2964394092559814 4.819211006164551
0.7075254917144775 1.296510934829712 4.819477081298828
0.6779252290725708 1.2965764999389648 4.81972074508667
0.6483219861984253 1.2966420650482178 4.819964408874512
0.620355486869812 1.3001441955566406 4.832982540130615
0.5930872559547424 1.3055356740951538 4.853024482727051
0.5655918717384338 1.3109722137451172 4.873233318328857
0.5378661155700684 1.3164540529251099 4.893610954284668
0.5099080204963684 1.3219820261001587 4.914159774780273
0.4818217158317566 1.3278533220291138 4.935985088348389
0.4536007344722748 1.3341178894042969 4.9592719078063965
0.42511114478111267 1.3404383659362793 4.982767105102539
0.39635133743286133 1.3468225002288818 5.006498336791992
0.36731618642807007 1.3532675504684448 5.03045654296875
0.3396349847316742 1.3663445711135864 5.079067230224609
0.31184518337249756 1.3815891742706299 5.135735511779785
0.2834746539592743 1.3974063396453857 5.1945319175720215
0.25531190633773804 1.418394684791565 5.272551536560059
0.22697386145591736 1.4443734884262085 5.369121551513672
0.19404257833957672 1.4449912309646606 5.371417999267578
0.16082103550434113 1.4432576894760132 5.364973545074463
0.12861308455467224 1.4520726203918457 5.397741317749023
0.09777047485113144 1.487796664237976 5.530537128448486
0.06548818200826645 1.528045415878296 5.680152416229248
0.03332241252064705 1.666090965270996 6.193304538726807
-0.004798623267561197 1.6799275875091553 6.244739055633545
-0.04353271424770355 1.6929640769958496 6.293199062347412
-0.08287180215120316 1.706209659576416 6.34243631362915
-0.12229453772306442 1.7121332883834839 6.3644561767578125
-0.16149067878723145 1.7127935886383057 6.366910457611084
-0.2005658894777298 1.7121541500091553 6.364533424377441
-0.23995733261108398 1.713990330696106 6.371359348297119
-0.27972540259361267 1.717617154121399 6.384840965270996
-0.3198562264442444 1.7223100662231445 6.402286052703857
-0.36020585894584656 1.7270183563232422 6.419787883758545
-0.4008099436759949 1.7319010496139526 6.437938213348389
-0.44170942902565 1.7370630502700806 6.457126617431641
-0.4827180802822113 1.7417716979980469 6.474629878997803
-0.5239540934562683 1.7465167045593262 6.4922685623168945
-0.565329372882843 1.751021385192871 6.509013652801514
-0.6069023609161377 1.7555055618286133 6.52568244934082
-0.6498415470123291 1.7631371021270752 6.554050922393799
-0.6934504508972168 1.7715914249420166 6.585477828979492
-0.7373621463775635 1.7798408269882202 6.616143226623535
-0.7797360420227051 1.7837125062942505 6.630535125732422
-0.8219989538192749 1.78695547580719 6.642590045928955
-0.8767955899238586 1.8158513307571411 6.750003814697266
-0.9292482137680054 1.837497591972351 6.830468654632568
-0.9753837585449219 1.8453229665756226 6.859557628631592
-1.0175166130065918 1.8452385663986206 6.859243869781494
-1.0585225820541382 1.843200922012329 6.8516693115234375
-1.1061357259750366 1.8523815870285034 6.885796546936035
-1.1542320251464844 1.8616667985916138 6.92031192779541
-1.2027422189712524 1.8709335327148438 6.954759120941162
-1.264702320098877 1.8997695446014404 7.061950206756592
1.7020050287246704 1.458860158920288 5.5498270988464355
1.64810049533844 1.4415596723556519 5.484012126922607
1.4049291610717773 1.2545307874679565 4.772512912750244
1.3781709671020508 1.2568906545639038 4.781490325927734
1.3513180017471313 1.2592650651931763 4.790523052215576
1.3243571519851685 1.261642575263977 4.799567699432373
1.2973004579544067 1.2640349864959717 4.808669090270996
1.3605389595031738 1.356570839881897 5.160696029663086
1.1869176626205444 1.2117176055908203 4.609642028808594
1.145508050918579 1.1980528831481934 4.557658672332764
1.1105111837387085 1.1905778646469116 4.529222011566162
1.082350492477417 1.19023597240448 4.527921199798584
1.0606504678726196 1.1971683502197266 4.554293632507324
1.0365453958511353 1.201688289642334 4.571488380432129
1.0148712396621704 1.2093571424484253 4.6006622314453125
0.9929186105728149 1.217124342918396 4.6302103996276855
0.9981702566146851 1.2596821784973145 4.792109966278076
0.99005126953125 1.2874417304992676 4.897713661193848
0.9576343894004822 1.2843552827835083 4.885972023010254
0.9201160073280334 1.2740052938461304 4.846598148345947
0.8878320455551147 1.270452618598938 4.833083152770996
0.8562273979187012 1.2676596641540527 4.822458267211914
0.824763298034668 1.26488196849823 4.811891078948975
0.7940475940704346 1.2630878686904907 4.805066108703613
0.7643371224403381 1.262816071510315 4.804031848907471
0.7346394062042236 1.2625441551208496 4.802997589111328
0.7049528360366821 1.2622694969177246 4.801952838897705
0.6754569411277771 1.2623273134231567 4.802172660827637
0.6353291273117065 1.241612434387207 4.7233686447143555
0.6181601881980896 1.265930414199829 4.815879821777344
0.590979814529419 1.2711615562438965 4.835780143737793
0.5635737776756287 1.2764359712600708 4.855844974517822
0.5359389781951904 1.2817542552947998 4.876077175140381
0.5080733299255371 1.2871171236038208 4.896478652954102
0.4800838828086853 1.2928221225738525 4.918181896209717
0.45195484161376953 1.2988930940628052 4.941277027130127
0.42356234788894653 1.3050274848937988 4.964613437652588
0.39490044116973877 1.3112200498580933 4.988171577453613
0.3659660518169403 1.3174748420715332 5.011966228485107
0.33837950229644775 1.330178141593933 5.0602922439575195
0.3108631670475006 1.345758318901062 5.11956262588501
0.2825257182121277 1.3608942031860352 5.177143096923828
0.25354427099227905 1.3763781785964966 5.236047267913818
0.22577041387557983 1.4038755893707275 5.340653896331787
0.1949513554573059 1.4185752868652344 5.3965744972229
0.1615077257156372 1.4162901639938354 5.387881278991699
0.12826281785964966 1.4150177240371704 5.383040904998779
0.09801965951919556 1.4574947357177734 5.544632911682129
0.07159369438886642 1.6323227882385254 6.209717273712158
0.0336916483938694 1.6460479497909546 6.2619309425354
-0.00485262181609869 1.6600009202957153 6.315011024475098
-0.044032443314790726 1.6732572317123413 6.36544132232666
-0.08360455930233002 1.6819515228271484 6.3985161781311035
-0.12313798069953918 1.6845366954803467 6.408350944519043
-0.16263669729232788 1.6855204105377197 6.412093162536621
-0.20198990404605865 1.6848970651626587 6.409721851348877
-0.24137556552886963 1.6847116947174072 6.4090166091918945
-0.28126248717308044 1.6875792741775513 6.419925212860107
-0.3214213252067566 1.6911773681640625 6.433613300323486
-0.36183738708496094 1.6951868534088135 6.448866367340088
-0.4025983512401581 1.6998652219772339 6.466663837432861
-0.44360387325286865 1.7046380043029785 6.484820365905762
-0.48479703068733215 1.7092891931533813 6.502514839172363
-0.5262151956558228 1.7139605283737183 6.520285606384277
-0.5678284168243408 1.7185609340667725 6.537786483764648
-0.6097998023033142 1.7235687971115112 6.556837558746338
-0.6534130573272705 1.7323049306869507 6.590071678161621
-0.6972338557243347 1.7405420541763306 6.621407508850098
-0.7408000230789185 1.7472668886184692 6.6469902992248535
-0.7830983400344849 1.7504570484161377 6.659126281738281
-0.8256734013557434 1.753915548324585 6.672283172607422
-0.8759075403213501 1.7725485563278198 6.743167400360107
-0.9288368225097656 1.794702172279358 6.827444553375244
-0.9749436974525452 1.8023301362991333 6.8564629554748535
-1.0214521884918213 1.810034990310669 6.8857741355896
-1.0629574060440063 1.808615803718567 6.880374908447266
-1.1033967733383179 1.8055591583251953 6.868746757507324
-1.1513596773147583 1.814586877822876 6.903090476989746
-1.1995280981063843 1.823283314704895 6.936173439025879
-1.2483333349227905 1.8323191404342651 6.970547676086426
-1.29762601852417 1.841444969177246 7.005264759063721
-1.3672033548355103 1.8778454065322876 7.143739700317383
1.4275436401367188 1.2194350957870483 4.750114917755127
1.4009567499160767 1.2217209339141846 4.759018898010254
1.3742698431015015 1.2240151166915894 4.767955780029297
1.347482681274414 1.226318120956421 4.776926517486572
1.3205944299697876 1.2286298274993896 4.785931587219238
1.2936075925827026 1.2309529781341553 4.794981002807617
1.3694592714309692 1.333524465560913 5.1945319175720215
1.1776095628738403 1.1740930080413818 4.573492050170898
1.1400967836380005 1.1645011901855469 4.536128520965576
1.1094880104064941 1.1616568565368652 4.525049209594727
1.0816218852996826 1.161611795425415 4.52487325668335
1.0556436777114868 1.1636453866958618 4.532794952392578
1.0327900648117065 1.169326901435852 4.55492639541626
1.0111732482910156 1.1767644882202148 4.583898544311523
0.9892753958702087 1.184292197227478 4.613221168518066
0.9744017720222473 1.2009220123291016 4.677999973297119
0.9562619924545288 1.2144150733947754 4.730560302734375
0.9264010190963745 1.2134023904800415 4.7266154289245605
0.8968302011489868 1.2127163410186768 4.72394323348999
0.8672888278961182 1.2120256423950195 4.72125244140625
0.8377849459648132 1.211341142654419 4.718586444854736
0.8083142042160034 1.2106573581695557 4.715922832489014
0.7927325963973999 1.231499195098877 4.7971086502075195
0.7630715370178223 1.2312344312667847 4.796077251434326
0.7334216237068176 1.2309670448303223 4.7950358390808105
0.69093257188797 1.2082257270812988 4.706450462341309
0.6598561406135559 1.2043256759643555 4.691258430480957
0.6335667967796326 1.2092053890228271 4.710266590118408
0.6070649027824402 1.214127540588379 4.729440212249756
0.5803450345993042 1.2190872430801392 4.748759746551514
0.5534060001373291 1.2240874767303467 4.768237590789795
0.5340255498886108 1.247302770614624 4.858668804168701
0.506251871585846 1.252502679824829 4.878924369812012
0.4783562123775482 1.2580372095108032 4.900483131408691
0.4503229260444641 1.2639293670654297 4.923435211181641
0.42202576994895935 1.2698769569396973 4.946603298187256
0.39346107840538025 1.2758808135986328 4.969990253448486
0.364624947309494 1.2819416522979736 4.9935994148254395
0.33712512254714966 1.2942471504211426 5.041533470153809
0.30988726019859314 1.3101526498794556 5.103490829467773
0.2816295623779297 1.3248447179794312 5.160721302032471
0.2529259920120239 1.3409044742584229 5.2232794761657715
0.22448301315307617 1.3632185459136963 5.310200214385986
0.19510197639465332 1.3864625692367554 5.4007439613342285
0.1622241735458374 1.3892961740493774 5.4117817878723145
0.12882861495018005 1.3880139589309692 5.406786918640137
0.09548922628164291 1.3866554498672485 5.401494979858398
0.0723891407251358 1.611851453781128 6.27871036529541
0.034069161862134933 1.625556230545044 6.332095146179199
-0.0049074613489210606 1.639491319656372 6.386376857757568
-0.044499512761831284 1.651450514793396 6.432961940765381
-0.08418426662683487 1.6539974212646484 6.442883014678955
-0.12399275600910187 1.6565521955490112 6.4528350830078125
-0.16379959881305695 1.6578631401062012 6.45794153213501
-0.20350758731365204 1.6578478813171387 6.457881927490234
-0.2434813529253006 1.6596571207046509 6.464929580688477
-0.2835856080055237 1.6617164611816406 6.472951412200928
-0.3240828216075897 1.66529381275177 6.486886501312256
-0.36475592851638794 1.6688867807388306 6.500882148742676
-0.4056163728237152 1.6725471019744873 6.515140533447266
-0.44664648175239563 1.6761817932128906 6.529298782348633
-0.4876076579093933 1.6789836883544922 6.540213108062744
-0.5287039279937744 1.6817845106124878 6.551123142242432
-0.5703282356262207 1.6857496500015259 6.566568851470947
-0.6131719946861267 1.692559838294983 6.593096733093262
-0.657024085521698 1.7011327743530273 6.626491546630859
-0.7007739543914795 1.7084583044052124 6.655026912689209
-0.7440024018287659 1.7137715816497803 6.675724029541016
-0.7866026163101196 1.7171605825424194 6.688925266265869
-0.8296883702278137 1.7212176322937012 6.704728603363037
-0.8779004216194153 1.735024094581604 6.758509635925293
-0.9284197092056274 1.7519336938858032 6.824378490447998
-0.9745103716850281 1.7593880891799927 6.853415489196777
-1.0209928750991821 1.7669001817703247 6.882678031921387
-1.0677952766418457 1.7743481397628784 6.9116902351379395
-1.1015279293060303 1.760337233543396 6.857112884521484
-1.148433804512024 1.767637014389038 6.885548114776611
-1.196334958076477 1.7758933305740356 6.9177093505859375
-1.244985580444336 1.7846589088439941 6.951854228973389
-1.2941287755966187 1.7935235500335693 6.986384868621826
-1.3437625169754028 1.8024765253067017 7.021259784698486
-1.3938978910446167 1.8115254640579224 7.056508541107178
-1.4445403814315796 1.820665717124939 7.092113018035889
1.4235261678695679 1.1868774890899658 4.736746788024902
1.3970098495483398 1.189098596572876 4.745611190795898
1.3703910112380981 1.191325306892395 4.75449800491333
1.3436752557754517 1.1935632228851318 4.763429164886475
1.3168528079986572 1.1958039999008179 4.772371768951416
1.3021373748779297 1.2093913555145264 4.826598167419434
1.2145971059799194 1.1543972492218018 4.607120513916016
1.16844642162323 1.1370540857315063 4.537905216217041
1.1347362995147705 1.1312648057937622 4.514800548553467
1.1067060232162476 1.1309897899627686 4.513702869415283
1.0786869525909424 1.1307122707366943 4.512595176696777
1.0506861209869385 1.1304397583007812 4.511507987976074
1.029062032699585 1.1371992826461792 4.538484573364258
1.007500171661377 1.1444063186645508 4.56724739074707
0.985660970211029 1.151702642440796 4.5963664054870605
0.9736567735671997 1.171261191368103 4.6744232177734375
0.9532967209815979 1.1816517114639282 4.715891361236572
0.9235846400260925 1.1807383298873901 4.712245941162109
0.8941052556037903 1.1800727844238281 4.709589958190918
0.8646590113639832 1.1794079542160034 4.706936359405518
0.8352422118186951 1.1787385940551758 4.704265117645264
0.8058623671531677 1.1780753135681152 4.701618194580078
0.776515543460846 1.177412748336792 4.698973655700684
0.7472202181816101 1.1767799854278564 4.69644832611084
0.7184838056564331 1.1770118474960327 4.697373867034912
0.6917663216590881 1.1807091236114502 4.712129592895508
0.658475935459137 1.173020839691162 4.681446075439453
0.631814181804657 1.1769776344299316 4.697237014770508
0.6053788661956787 1.1817553043365479 4.716304779052734
0.578726589679718 1.1865692138671875 4.735516548156738
0.5518563985824585 1.1914225816726685 4.754886150360107
0.524763822555542 1.1963130235671997 4.7744035720825195
0.49745064973831177 1.201249361038208 4.794104099273682
0.46991002559661865 1.2062238454818726 4.8139567375183105
0.4487028121948242 1.229217290878296 4.905722141265869
0.42050033807754517 1.2349807024002075 4.928723335266113
0.3920312523841858 1.240795373916626 4.951929569244385
0.3632936477661133 1.2466681003570557 4.975367069244385
0.33587923645973206 1.2585787773132324 5.022902011871338
0.30891525745391846 1.2747607231140137 5.087482929229736
0.28073835372924805 1.2890199422836304 5.14439058303833
0.2524161636829376 1.3061487674713135 5.212750434875488
0.22412265837192535 1.3284306526184082 5.301675796508789
0.19675838947296143 1.3647429943084717 5.446596145629883
0.16294193267822266 1.362019419670105 5.435726165771484
0.1293799877166748 1.3605663776397705 5.429927349090576
0.09589280188083649 1.3591622114181519 5.424323558807373
0.07320244610309601 1.590920090675354 6.349253177642822
0.03467483073472977 1.6148271560668945 6.44466495513916
-0.004980628378689289 1.6240803003311157 6.481593608856201
-0.04486531391739845 1.6251451969146729 6.485843181610107
-0.08484005182981491 1.626956582069397 6.493072509765625
-0.12490514665842056 1.6287720203399658 6.500317573547363
-0.165056049823761 1.6305662393569946 6.5074782371521
-0.20529602468013763 1.6323593854904175 6.514634609222412
-0.24562343955039978 1.634156346321106 6.521806240081787
-0.28604090213775635 1.6359573602676392 6.528994083404541
-0.32678982615470886 1.6389832496643066 6.541069984436035
-0.3678150177001953 1.6425745487213135 6.555402755737305
-0.4090602695941925 1.6463468074798584 6.570457458496094
-0.45049795508384705 1.6501414775848389 6.585601806640625
-0.491961807012558 1.6534020900726318 6.598614692687988
-0.5334363579750061 1.6561952829360962 6.609762191772461
-0.5755109190940857 1.660324215888977 6.626240253448486
-0.6185528039932251 1.6665164232254028 6.65095329284668
-0.661253035068512 1.6710741519927979 6.669142723083496
-0.7044625282287598 1.6763144731521606 6.690056324005127
-0.7473400235176086 1.6802271604537964 6.705671787261963
-0.7901663184165955 1.683624267578125 6.719229221343994
-0.8340991139411926 1.6889219284057617 6.7403717041015625
-0.8826078772544861 1.702547311782837 6.794749736785889
-0.9282535314559937 1.709665298461914 6.82315731048584
-0.9676859974861145 1.70522141456604 6.805421829223633
-1.0085572004318237 1.7035739421844482 6.798847198486328
-1.0544848442077637 1.7102606296539307 6.825533390045166
-1.1007829904556274 1.7170114517211914 6.852475166320801
-1.1474429368972778 1.723809838294983 6.879607200622559
-1.194467306137085 1.7306510210037231 6.906909942626953
-1.2415202856063843 1.737064242362976 6.932504653930664
-1.2873399257659912 1.7413816452026367 6.949735164642334
-1.336789608001709 1.7501741647720337 6.984825611114502
-1.387283444404602 1.7597452402114868 7.0230231285095215
-1.4383385181427002 1.7694276571273804 7.061664581298828
-1.4899523258209229 1.779211163520813 7.100709915161133
-1.5421464443206787 1.7891093492507935 7.1402130126953125
1.4458853006362915 1.1523587703704834 4.714682579040527
1.4195343255996704 1.1545051336288452 4.723464012145996
1.39308500289917 1.1566596031188965 4.732278823852539
1.366533875465393 1.158819556236267 4.741116046905518
1.3398863077163696 1.1609902381896973 4.749996662139893
1.3131325244903564 1.163163661956787 4.758889198303223
1.2941430807113647 1.1724704504013062 4.796966075897217
1.2050666809082031 1.1172326803207397 4.570970058441162
1.1594197750091553 1.1005823612213135 4.502848148345947
1.129426121711731 1.0983396768569946 4.493672847747803
1.1015281677246094 1.0980737209320068 4.492584705352783
1.0736438035964966 1.0978080034255981 4.49149751663208
1.0466042757034302 1.0984150171279907 4.493980884552002
1.0253629684448242 1.1053050756454468 4.522170543670654
1.003851294517517 1.1122797727584839 4.550706386566162
0.9820814728736877 1.119360089302063 4.579674243927002
0.9729129672050476 1.1416457891464233 4.670852184295654
0.9503496885299683 1.1490908861160278 4.70131254196167
0.9207873344421387 1.1482747793197632 4.697973728179932
0.891396701335907 1.1476268768310547 4.6953229904174805
0.8620412349700928 1.1469824314117432 4.692686080932617
0.8327168226242065 1.1463359594345093 4.690041542053223
0.8034271597862244 1.1456929445266724 4.687410354614258
0.7742084264755249 1.1451067924499512 4.685012340545654
0.7450311779975891 1.1445391178131104 4.682689666748047
0.7165354490280151 1.1450146436691284 4.684635639190674
0.6898859739303589 1.148604154586792 4.699321269989014
0.6604101657867432 1.1475961208343506 4.695197105407715
0.6300714015960693 1.144927740097046 4.684279918670654
0.6037021279335022 1.1495623588562012 4.70324182510376
0.5771172046661377 1.154232144355774 4.722347259521484
0.5503154397010803 1.158940076828003 4.7416090965271
0.5232925415039062 1.1636838912963867 4.761017322540283
0.4960501790046692 1.1684719324111938 4.780607223510742
0.4685816168785095 1.1732969284057617 4.800347805023193
0.4408853054046631 1.1781619787216187 4.820252418518066
0.4129582941532135 1.1830675601959229 4.840322494506836
0.38479870557785034 1.1880168914794922 4.86057186126709
0.36197203397750854 1.211651086807251 4.9572672843933105
0.33464330434799194 1.2231760025024414 5.004419326782227
0.3077639937400818 1.2388441562652588 5.068522930145264
0.27985212206840515 1.253418207168579 5.128150463104248
0.2519095838069916 1.2715390920639038 5.20228910446167
0.2237628847360611 1.2937510013580322 5.29316520690918
0.19764283299446106 1.3372365236282349 5.471078872680664
0.16367244720458984 1.3345521688461304 5.46009635925293
0.12993645668029785 1.3328864574432373 5.453281402587891
0.09628503769636154 1.331231713294983 5.446511268615723
0.07516918331384659 1.5935735702514648 6.519839286804199
0.03517992049455643 1.5981446504592896 6.538540840148926
-0.005027099512517452 1.5990071296691895 6.542069435119629
-0.04527869448065758 1.5998705625534058 6.545602321624756
-0.08561915159225464 1.6016051769256592 6.552699089050293
-0.12604951858520508 1.6033586263656616 6.559873104095459
-0.16655795276165009 1.6050254106521606 6.566692352294922
-0.20715057849884033 1.6066856384277344 6.573484897613525
-0.24782685935497284 1.6083542108535767 6.5803117752075195
-0.2885879874229431 1.6100213527679443 6.587132453918457
-0.3295423984527588 1.6122292280197144 6.596165657043457
-0.3709574043750763 1.615954875946045 6.611408233642578
-0.41256314516067505 1.6196978092193604 6.6267218589782715
-0.4543646574020386 1.6234631538391113 6.64212703704834
-0.4963582158088684 1.6272408962249756 6.657583236694336
-0.5385437607765198 1.6310206651687622 6.6730475425720215
-0.5818070769309998 1.6372984647750854 6.698732376098633
-0.6243504881858826 1.6408573389053345 6.713292598724365
-0.6674723029136658 1.6453975439071655 6.731868267059326
-0.709678590297699 1.6472853422164917 6.739591598510742
-0.7512338161468506 1.6475341320037842 6.740609645843506
-0.7937674522399902 1.649793028831482 6.749851703643799
-0.8385623693466187 1.6562916040420532 6.776439189910889
-0.8851948380470276 1.6656347513198853 6.8146653175354
-0.9299508929252625 1.6707597970962524 6.835633754730225
-0.9651365876197815 1.6589932441711426 6.787492752075195
-1.0096209049224854 1.66352117061615 6.806017875671387
-1.0537440776824951 1.6671191453933716 6.820738315582275
-1.099812626838684 1.6733999252319336 6.846435070037842
-1.1464276313781738 1.6800198554992676 6.873519420623779
-1.1933904886245728 1.6866590976715088 6.9006829261779785
-1.2406221628189087 1.6932111978530884 6.927489757537842
-1.2882150411605835 1.699803113937378 6.9544596672058105
-1.3347535133361816 1.704624891281128 6.974186897277832
-1.381081223487854 1.7088872194290161 6.9916253089904785
-1.4276424646377563 1.7131707668304443 7.009150981903076
-1.4760288000106812 1.719330906867981 7.034354209899902
-1.5276507139205933 1.7288002967834473 7.073096752166748
-1.5809582471847534 1.7396018505096436 7.117289066314697
1.4418529272079468 1.1202356815338135 4.701533794403076
1.4155648946762085 1.1223138570785522 4.710256099700928
1.3891823291778564 1.124402403831482 4.719021320343018
1.3626983165740967 1.1264961957931519 4.727808952331543
1.3361154794692993 1.1285977363586426 4.736629009246826
1.3171616792678833 1.137380838394165 4.773490905761719
1.2892948389053345 1.1386923789978027 4.778995037078857
1.1956950426101685 1.0806561708450317 4.535422325134277
1.1519452333450317 1.0659780502319336 4.473819255828857
1.124167561531067 1.0657234191894531 4.472750663757324
1.0963984727859497 1.0654643774032593 4.471663475036621
1.0686451196670532 1.0652077198028564 4.47058629989624
1.0428766012191772 1.0669682025909424 4.477974891662598
1.0216881036758423 1.0736370086669922 4.505963325500488
1.0002331733703613 1.0803897380828857 4.534304141998291
0.9785236120223999 1.0872470140457153 4.563083171844482
0.9721681475639343 1.1120731830596924 4.667276382446289
0.9474207758903503 1.1167305707931519 4.68682336807251
0.9180049300193787 1.1160048246383667 4.683777332305908
0.888706624507904 1.1153795719146729 4.681153297424316
0.8594411611557007 1.1147550344467163 4.678532123565674
0.8302158117294312 1.1141411066055298 4.675955295562744
0.8010672330856323 1.113589882850647 4.673642158508301
0.7719458341598511 1.1130367517471313 4.67132043838501
0.7428533434867859 1.1124842166900635 4.669001579284668
0.714599072933197 1.1131929159164429 4.671976089477539
0.6880143284797668 1.1166707277297974 4.686572074890137
0.6612643599510193 1.1201728582382202 4.70127010345459
0.6283380389213562 1.1130540370941162 4.671393394470215
0.6020346879959106 1.1175473928451538 4.690251350402832
0.5755167603492737 1.1220744848251343 4.709251403808594
0.5487830638885498 1.1266385316848755 4.728405952453613
0.5218294858932495 1.1312371492385864 4.747706413269043
0.4946564733982086 1.135876178741455 4.767175674438477
0.4672607183456421 1.1405558586120605 4.786816120147705
0.43963733315467834 1.1452717781066895 4.806608200073242
0.4117845296859741 1.150026798248291 4.826564788818359
0.3837004005908966 1.154824137687683 4.846698760986328
0.3553793132305145 1.1596564054489136 4.866979122161865
0.3268210291862488 1.1645318269729614 4.887441158294678
0.3066212832927704 1.2031941413879395 5.049703598022461
0.2789728045463562 1.2180465459823608 5.112037658691406
0.25140380859375 1.2370619773864746 5.1918439865112305
0.22340425848960876 1.2591824531555176 5.284681797027588
0.19853419065475464 1.3094744682312012 5.495753288269043
0.1644095629453659 1.306837558746338 5.484686374664307
0.13049736618995667 1.3049638271331787 5.476822376251221
0.09668025374412537 1.3030683994293213 5.468867301940918
0.06295354664325714 1.3010293245315552 5.4603095054626465
0.0355110764503479 1.572605013847351 6.6000895500183105
-0.0038609516341239214 1.1971865892410278 5.0244903564453125
-0.04570537433028221 1.5743192434310913 6.607284069061279
-0.08641023188829422 1.5757391452789307 6.613243103027344
-0.12720781564712524 1.5773855447769165 6.620152950286865
-0.16824375092983246 1.5804837942123413 6.6331562995910645
-0.2094583362340927 1.5837148427963257 6.646716594696045
-0.250838965177536 1.5869488716125488 6.660289287567139
-0.2923780381679535 1.5901304483413696 6.673642158508301
-0.3340679407119751 1.5932536125183105 6.6867499351501465
-0.37599635124206543 1.5967003107070923 6.7012152671813965
-0.42110586166381836 1.6116451025009155 6.763937473297119
-0.4649059772491455 1.6193382740020752 6.796225070953369
-0.5070989727973938 1.6206302642822266 6.801647663116455
-0.5482785701751709 1.6187297105789185 6.793671131134033
-0.588932991027832 1.6156575679779053 6.780777454376221
-0.6301906704902649 1.6145403385162354 6.776088714599609
-0.6726827621459961 1.6165251731872559 6.78441858291626
-0.714507520198822 1.6167709827423096 6.785450458526611
-0.7563438415527344 1.6170116662979126 6.7864603996276855
-0.7981939315795898 1.6172575950622559 6.787492752075195
-0.8416135311126709 1.6204988956451416 6.801095962524414
-0.8870280385017395 1.6270947456359863 6.828778266906738
-0.931657612323761 1.631717324256897 6.848178863525391
-0.9674693942070007 1.6211665868759155 6.803898334503174
-1.0123380422592163 1.6260358095169067 6.824334144592285
-1.0567514896392822 1.6298173666000366 6.84020471572876
-1.1011967658996582 1.6333547830581665 6.855051040649414
-1.1458379030227661 1.6369128227233887 6.869984149932861
-1.1923233270645142 1.6427571773529053 6.894512176513672
-1.239504337310791 1.64912748336792 6.921247959136963
-1.2870498895645142 1.655542016029358 6.948169231414795
-1.3349666595458984 1.6620066165924072 6.975300312042236
-1.3825008869171143 1.6676087379455566 6.998812198638916
-1.429113507270813 1.6717931032180786 7.016373634338379
-1.4759595394134521 1.675998568534851 7.034023761749268
-1.5230430364608765 1.6802253723144531 7.05176305770874
-1.5703685283660889 1.684478998184204 7.069615364074707
-1.6356804370880127 1.7072758674621582 7.165291786193848
1.47230064868927 1.0924675464630127 4.706450462341309
1.4378396272659302 1.08828866481781 4.68844747543335
1.411617636680603 1.0903021097183228 4.697121620178223
1.385304570198059 1.0923278331756592 4.705848693847656
1.3588874340057373 1.0943562984466553 4.714587211608887
1.3323689699172974 1.096389651298523 4.723347187042236
1.3237663507461548 1.113585114479065 4.797426700592041
1.2844884395599365 1.1051713228225708 4.761179447174072
1.1864655017852783 1.0446419715881348 4.500413417816162
1.1466031074523926 1.0336530208587646 4.4530720710754395
1.118955373764038 1.033407211303711 4.45201301574707
1.0913186073303223 1.0331593751907349 4.4509453773498535
1.0636928081512451 1.0329093933105469 4.449868679046631
1.039177656173706 1.035746693611145 4.46209192276001
1.0180397033691406 1.042195200920105 4.489872455596924
0.9966474175453186 1.0487356185913086 4.518049240112305
0.9749935865402222 1.0553679466247559 4.546621799468994
0.9714460372924805 1.0825697183609009 4.663809776306152
0.9445078372955322 1.0845668315887451 4.672413349151611
0.9152413606643677 1.0839316844940186 4.669677257537842
0.8860307931900024 1.0833238363265991 4.66705846786499
0.8568853139877319 1.082757592201233 4.664618968963623
0.8277960419654846 1.0822255611419678 4.662326812744141
0.798731803894043 1.0816892385482788 4.6600165367126465
0.7696964144706726 1.0811535120010376 4.657708644866943
0.7406898140907288 1.0806183815002441 4.655403137207031
0.7126716375350952 1.0815402269363403 4.659374713897705
0.6861559152603149 1.0849149227142334 4.67391300201416
0.6594710946083069 1.0883057117462158 4.688520908355713
0.6300347447395325 1.0872581005096436 4.68400764465332
0.6003776788711548 1.0857110023498535 4.677342414855957
0.5739251375198364 1.0900945663452148 4.696227550506592
0.5472592115402222 1.0945161581039429 4.71527624130249
0.5203757286071777 1.0989737510681152 4.734479904174805
0.49327167868614197 1.1034653186798096 4.7538299560546875
0.4659472405910492 1.1079987287521362 4.773360252380371
0.4383964240550995 1.1125670671463013 4.793041229248047
0.4106174111366272 1.117173194885254 4.81288480758667
0.3826083838939667 1.121820330619812 4.832904815673828
0.35436365008354187 1.1265009641647339 4.853069305419922
0.32588306069374084 1.131223440170288 4.873414516448975
0.29716262221336365 1.1359856128692627 4.893930435180664
0.2780868113040924 1.1828444004058838 5.095802307128906
0.2509006857872009 1.202725887298584 5.181453704833984
0.22304734587669373 1.2247276306152344 5.276238918304443
0.19825778901576996 1.2739055156707764 5.488101959228516
0.15079496800899506 1.1676874160766602 5.0305047035217285
0.11952369660139084 1.1643832921981812 5.016270160675049
0.0889873132109642 1.168430209159851 5.0337042808532715
0.05822095274925232 1.17217218875885 5.049825191497803
0.027056876569986343 1.1672898530960083 5.028791904449463
-0.003847364569082856 1.162187099456787 5.006808757781982
-0.034810733050107956 1.1681104898452759 5.032327175140381
-0.4851663410663605 1.646297574043274 7.092401027679443
-0.5304427146911621 1.6514862775802612 7.1147541999816895
-0.5761773586273193 1.6571983098983765 7.139362335205078
-0.6222612857818604 1.6630353927612305 7.164508819580078
-0.6387264728546143 1.5941790342330933 6.8678693771362305
-0.678198516368866 1.5877211093902588 6.840048313140869
-0.7196980714797974 1.5864896774291992 6.834743022918701
-0.7618539929389954 1.5867584943771362 6.835901260375977
-0.8036378026008606 1.586267352104187 6.833785057067871
-0.8454052805900574 1.5857919454574585 6.831737041473389
-0.8888688683509827 1.5883946418762207 6.842949867248535
-0.9250902533531189 1.578403115272522 6.799905300140381
-0.9698071479797363 1.5831462144851685 6.820339202880859
-1.0147981643676758 1.5879231691360474 6.84091854095459
-1.0597690343856812 1.5922913551330566 6.859737396240234
-1.1043517589569092 1.5957624912261963 6.874691009521484
-1.149124264717102 1.599243402481079 6.889687538146973
-1.194904088973999 1.6038274765014648 6.909435749053955
-1.2405812740325928 1.6079649925231934 6.927260875701904
-1.285891056060791 1.6113661527633667 6.94191312789917
-1.3337554931640625 1.6176471710205078 6.968972206115723
-1.3819981813430786 1.6239827871322632 6.996266841888428
-1.430582880973816 1.6303246021270752 7.023587703704834
-1.4774857759475708 1.6344354152679443 7.041297912597656
-1.5246219635009766 1.6385616064071655 7.0590739250183105
-1.5721386671066284 1.6428582668304443 7.077584266662598
-1.6259088516235352 1.6532809734344482 7.122486114501953
-1.7068978548049927 1.6901092529296875 7.2811455726623535
1.4746304750442505 1.0652110576629639 4.713898181915283
1.433851957321167 1.0565215349197388 4.675444602966309
1.407698631286621 1.0584732294082642 4.684081077575684
1.3814451694488525 1.060429573059082 4.6927385330200195
1.3550946712493896 1.0623931884765625 4.701428413391113
1.331840991973877 1.0669232606887817 4.721475601196289
1.3188066482543945 1.0800244808197021 4.779452323913574
1.2230008840560913 1.0243929624557495 4.533265113830566
1.1773797273635864 1.0091816186904907 4.465950012207031
1.141310214996338 1.0016263723373413 4.432516098022461
1.1137892007827759 1.001387357711792 4.431457996368408
1.0862834453582764 1.001150369644165 4.4304094314575195
1.058786392211914 1.0009093284606934 4.429342746734619
1.0355026721954346 1.0047439336776733 4.446311950683594
1.0144191980361938 1.010979175567627 4.473905086517334
0.9930874109268188 1.0173076391220093 4.50191068649292
0.9723037481307983 1.0245767831802368 4.534078598022461
0.9707508683204651 1.053138256072998 4.660472393035889
0.941646158695221 1.0526376962661743 4.658257007598877
0.9124943017959595 1.0520511865615845 4.655661582946777
0.8834277987480164 1.0515282154083252 4.653347492218018
0.8543920516967773 1.0510082244873047 4.651046276092529
0.8253868222236633 1.0504909753799438 4.648757457733154
0.7964100241661072 1.0499742031097412 4.646470546722412
0.7674601078033447 1.0494557619094849 4.644176006317139
0.7385404706001282 1.0489400625228882 4.6418938636779785
0.7107561826705933 1.0500602722167969 4.646851539611816
0.684304416179657 1.0533255338668823 4.661301136016846
0.6576860547065735 1.05660879611969 4.675830364227295
0.6309041976928711 1.0599173307418823 4.690471649169922
0.5987285375595093 1.0540471076965332 4.664494514465332
0.5723422169685364 1.0582910776138306 4.68327522277832
0.5457438230514526 1.0625718832015991 4.702219009399414
0.5189288854598999 1.066887378692627 4.721316337585449
0.49189460277557373 1.0712355375289917 4.740558624267578
0.46464115381240845 1.0756243467330933 4.759980201721191
0.43716248869895935 1.0800466537475586 4.779550552368164
0.40945687890052795 1.0845054388046265 4.799282073974609
0.381522536277771 1.0890038013458252 4.819189071655273
0.3533537983894348 1.0935345888137817 4.839239120483398
0.3249504566192627 1.098105788230896 4.85946798324585
0.2963086664676666 1.102715253829956 4.879866600036621
0.26742666959762573 1.1073689460754395 4.900460243225098
0.2503989636898041 1.1685243844985962 5.171092510223389
0.22673235833644867 1.2119826078414917 5.363409042358398
0.1808209866285324 1.1310875415802002 5.005422592163086
0.1490381956100464 1.1235121488571167 4.971899032592773
0.11827998608350754 1.1217436790466309 4.964073181152344
0.08804834634065628 1.1254760026931763 4.980589866638184
0.057614412158727646 1.1292332410812378 4.997216701507568
0.026937441900372505 1.131352186203003 5.006593704223633
-0.003833964467048645 1.1274601221084595 4.989370346069336
-0.034653156995773315 1.1320196390151978 5.009547710418701
-0.5222692489624023 1.5829648971557617 7.005124092102051
-0.5620563626289368 1.5737601518630981 6.964390277862549
-0.6055983304977417 1.5756281614303589 6.972656726837158
-0.6660369634628296 1.6183068752288818 7.161523818969727
-0.7126308083534241 1.624135971069336 7.187319278717041
-0.7260943651199341 1.558189868927002 6.895486831665039
-0.7661042213439941 1.5533430576324463 6.874037742614746
-0.8080085515975952 1.5526456832885742 6.870952129364014
-0.8498793244361877 1.5519541501998901 6.867891788482666
-0.8889443278312683 1.5464493036270142 6.843530654907227
-0.9287219047546387 1.5426234006881714 6.826600074768066
-0.9721594452857971 1.5449469089508057 6.8368821144104
-1.0172637701034546 1.5496147871017456 6.857539176940918
-1.0626436471939087 1.5543161630630493 6.8783440589904785
-1.1075211763381958 1.557949185371399 6.894421577453613
-1.1529157161712646 1.5620161294937134 6.912419319152832
-1.1990007162094116 1.566694736480713 6.933123588562012
-1.2453653812408447 1.5714067220687866 6.953975200653076
-1.2915858030319214 1.5756281614303589 6.972656726837158
-1.3373018503189087 1.5789828300476074 6.987502098083496
-1.3832118511199951 1.582351803779602 7.002410888671875
-1.429319143295288 1.5857350826263428 7.017383098602295
-1.478279948234558 1.5919944047927856 7.0450825691223145
-1.5261991024017334 1.5968060493469238 7.066375732421875
-1.5754936933517456 1.6027520895004272 7.09268856048584
-1.6306052207946777 1.6141343116760254 7.143058776855469
-1.6947356462478638 1.6336146593093872 7.229265213012695
-1.7393382787704468 1.6337554454803467 7.229888439178467
-1.7900078296661377 1.6394469738006592 7.255075454711914
-1.8477360010147095 1.6511683464050293 7.306946277618408
1.4558759927749634 1.023046851158142 4.653946399688721
1.4298831224441528 1.0249278545379639 4.662503242492676
1.4037948846817017 1.0268157720565796 4.671091556549072
1.3776042461395264 1.0287060737609863 4.679690837860107
1.351317048072815 1.0306035280227661 4.688322067260742
1.3449980020523071 1.0481445789337158 4.768118381500244
1.313889741897583 1.0467190742492676 4.761633396148682
1.213557243347168 0.9888234734535217 4.498260498046875
1.1684321165084839 0.9742602109909058 4.432010650634766
1.1360660791397095 0.9698942303657532 4.412149429321289
1.1086727380752563 0.9696637392044067 4.4111008644104
1.0812945365905762 0.9694353342056274 4.410061836242676
1.0539270639419556 0.9692050218582153 4.4090142250061035
1.0318535566329956 0.9739596843719482 4.430643558502197
1.0108309984207153 0.9799908399581909 4.458079814910889
0.9895504713058472 0.9861013293266296 4.48587703704834
0.971583366394043 0.995958685874939 4.53071928024292
0.9701644778251648 1.023862600326538 4.657657146453857
0.9411277770996094 1.0234307050704956 4.6556925773620605
0.9115007519721985 1.0223095417022705 4.65059232711792
0.8819463849067688 1.0211999416351318 4.645544528961182
0.8524767756462097 1.0201175212860107 4.640620231628418
0.8230714797973633 1.0190396308898926 4.635716915130615
0.7941017150878906 1.0184431076049805 4.633003234863281
0.7652385234832764 1.0179438591003418 4.63073205947876
0.7364019155502319 1.0174428224563599 4.628452777862549
0.7088493704795837 1.0187468528747559 4.634385108947754
0.6824644207954407 1.0219084024429321 4.648767471313477
0.6559121608734131 1.0250850915908813 4.6632184982299805
0.6291957497596741 1.028283953666687 4.677770137786865
0.5980288982391357 1.0241674184799194 4.659043788909912
